# .PCD v0.7 - Point Cloud Data file format
VERSION 0.7
FIELDS x y z label
SIZE 4 4 4 4
TYPE F F F U
COUNT 1 1 1 1
WIDTH 1274
HEIGHT 1
VIEWPOINT 0 0 0 1 0 0 0
POINTS 1274
DATA ascii
-0.13865048 0.13090858 0.73900002 510
-0.13967906 0.13266002 0.73700005 510
-0.13967906 0.1305543 0.73700005 510
-0.14221406 0.13379787 0.73650002 510
-0.14159238 0.13037716 0.73600006 510
-0.14164025 0.12761691 0.73625004 510
-0.14190666 0.12443048 0.73400003 510
-0.14557335 0.14416 0.74200004 510
-0.14729524 0.14377142 0.74000001 510
-0.14850381 0.14357714 0.73900002 510
-0.14557335 0.14133334 0.74200004 510
-0.14729524 0.14095238 0.74000001 510
-0.14576705 0.13816248 0.73940003 510
-0.14850381 0.14076191 0.73900002 510
-0.14529429 0.13687144 0.73700005 510
-0.14950572 0.14038096 0.73700005 510
-0.14880382 0.13757335 0.73700005 510
-0.15140572 0.13738668 0.73600006 510
-0.14536335 0.13437985 0.73616672 510
-0.14610095 0.13212 0.73400003 510
-0.14470285 0.13002287 0.73400003 510
-0.14846173 0.13416229 0.73600006 510
-0.14889716 0.13212 0.73400003 510
-0.14799622 0.12984668 0.73300004 510
-0.14450444 0.12705366 0.73300004 510
-0.14361143 0.12409145 0.73200005 510
-0.14709716 0.12688001 0.73200005 510
-0.15140572 0.13528381 0.73600006 510
-0.15099429 0.13281906 0.73400003 510
-0.14550382 0.1239219 0.73100001 510
-0.22203977 0.17222309 0.74725002 511
-0.22203977 0.16937643 0.74725002 511
-0.2221138 0.16587381 0.7475 511
-0.22420955 0.16815716 0.74500006 511
-0.22410001 0.16505143 0.74700004 511
-0.22444606 0.16579206 0.74500006 511
-0.22410001 0.16220573 0.74700004 511
-0.22491907 0.16177145 0.74500006 511
-0.2263381 0.16106193 0.74500006 511
-0.22431524 0.17336667 0.74300003 511
-0.22360763 0.17124382 0.74300003 511
-0.22360763 0.16912097 0.74300003 511
-0.22589779 0.1712489 0.74200004 511
-0.22622858 0.16984761 0.74000001 511
-0.22542667 0.16818666 0.74200004 511
-0.22622858 0.16773334 0.74000001 511
-0.22401334 0.16465335 0.74200004 511
-0.22542667 0.16465335 0.74200004 511
-0.22622858 0.16420953 0.74000001 511
-0.22647017 0.16142826 0.74233341 511
-0.22825335 0.17454667 0.74200004 511
-0.22857778 0.17313652 0.74000001 511
-0.22811121 0.17037976 0.73925 511
-0.22733048 0.16750666 0.73900002 511
-0.22811906 0.16705334 0.73700005 511
-0.2300681 0.16694 0.73650002 511
-0.23138477 0.16707239 0.73400003 511
-0.22733049 0.16398762 0.73900002 511
-0.22825335 0.16041334 0.74200004 511
-0.2276381 0.16139048 0.74000001 511
-0.22801588 0.16347049 0.73666668 511
-0.22780953 0.15981716 0.73600006 511
-0.22963978 0.16372834 0.73625004 511
-0.23082551 0.16259848 0.73400003 511
-0.22921145 0.15981716 0.73600006 511
-0.23068571 0.15938288 0.73400003 511
-0.23332238 0.15927382 0.7335 511
-0.23493716 0.15894859 0.73200005 511
-0.22172858 0.15959714 0.74700004 511
-0.22208096 0.15822382 0.74500006 511
-0.22196572 0.15651429 0.74700004 511
-0.22203977 0.15371978 0.74725002 511
-0.22196572 0.15082286 0.74700004 511
-0.22410001 0.15936001 0.74700004 511
-0.22491907 0.15964288 0.74500006 511
-0.22410001 0.15651429 0.74700004 511
-0.22491907 0.15680479 0.74500006 511
-0.2263381 0.15964288 0.74500006 511
-0.22410001 0.15295716 0.74700004 511
-0.22444606 0.15349366 0.74500006 511
-0.22397304 0.15065557 0.74500006 511
-0.22401334 0.15758666 0.74200004 511
-0.22401334 0.15476002 0.74200004 511
-0.22647081 0.1581292 0.74233341 511
-0.22542667 0.15546668 0.74200004 511
-0.22622858 0.15504763 0.74000001 511
-0.22401334 0.14910668 0.74200004 511
-0.22589779 0.15240444 0.74200004 511
-0.22622858 0.15293333 0.74000001 511
-0.22613335 0.14981334 0.74200004 511
-0.22552381 0.14940952 0.74000001 511
-0.22401334 0.14698666 0.74200004 511
-0.22542667 0.14698666 0.74200004 511
-0.228827 0.15812857 0.74233341 511
-0.22966668 0.15617335 0.74200004 511
-0.22800477 0.15474318 0.7396667 511
-0.22811906 0.15792859 0.73700005 511
-0.2299124 0.15701336 0.73600006 511
-0.23138477 0.15658668 0.73400003 511
-0.23014645 0.15436643 0.73675001 511
-0.23138477 0.15448953 0.73400003 511
-0.22825335 0.15193334 0.74200004 511
-0.22834286 0.15222856 0.74000001 511
-0.22834286 0.14940952 0.74000001 511
-0.23118794 0.1518565 0.73933339 511
-0.22811906 0.15231335 0.73700005 511
-0.22952287 0.15231335 0.73700005 511
-0.23138477 0.15169333 0.73400003 511
-0.23022479 0.14880382 0.73700005 511
-0.23316288 0.15637332 0.73300004 511
-0.23201527 0.15350859 0.73600006 511
-0.23316288 0.15358096 0.73300004 511
-0.23493716 0.15685715 0.73200005 511
-0.23493716 0.15337145 0.73200005 511
-0.23201527 0.15070479 0.73600006 511
-0.23316288 0.15078858 0.73300004 511
-0.23201527 0.14860192 0.73600006 511
-0.23532921 0.15557301 0.73033333 511
-0.23568572 0.15295333 0.73000002 511
-0.23744571 0.15343715 0.72900003 511
-0.23712 0.15184 0.72800004 511
-0.2390143 0.20365763 0.74250007 512
-0.23820953 0.20015238 0.74000001 512
-0.2381293 0.19726691 0.73975003 512
-0.23774686 0.19382915 0.73900002 512
-0.23718382 0.19073239 0.73900002 512
-0.23794574 0.19162002 0.73700005 512
-0.23747779 0.18928033 0.73700005 512
-0.24620478 0.20363335 0.74500006 512
-0.24549526 0.20150478 0.74500006 512
-0.24573177 0.1989032 0.74500006 512
-0.24686572 0.19635428 0.74700004 512
-0.24620478 0.19370002 0.74500006 512
-0.24620478 0.18944287 0.74500006 512
-0.25357145 0.19285716 0.75000006 512
-0.24762385 0.19511907 0.74500006 512
-0.25004572 0.19234286 0.74800003 512
-0.24762385 0.19157144 0.74500006 512
-0.25147048 0.19234286 0.74800003 512
-0.25319526 0.19025335 0.75100005 512
-0.24916714 0.18936667 0.7475 512
-0.24971144 0.18710573 0.74700004 512
-0.24904288 0.18518573 0.74500006 512
-0.25184572 0.18639429 0.74700004 512
-0.24191557 0.20375557 0.74200004 512
-0.2403238 0.20226666 0.74000001 512
-0.24412858 0.2037943 0.74300003 512
-0.24168001 0.20069334 0.74200004 512
-0.24191557 0.19810224 0.74200004 512
-0.2403238 0.19662857 0.74000001 512
-0.24380001 0.19716001 0.74200004 512
-0.24238667 0.19574668 0.74200004 512
-0.24082267 0.19347562 0.73980004 512
-0.2408662 0.19015715 0.73950005 512
-0.2438 0.19433333 0.74200004 512
-0.24554382 0.19105715 0.74300003 512
-0.24314286 0.19028571 0.74000001 512
-0.24140666 0.18791714 0.73900002 512
-0.24554382 0.18751904 0.74300003 512
-0.24297857 0.18734048 0.73950005 512
-0.24537858 0.18527192 0.74250007 512
-0.24281429 0.18510191 0.73900002 512
-0.23981749 0.18647271 0.73700005 512
-0.23972574 0.18364954 0.73600006 512
-0.24215716 0.18319716 0.73700005 512
-0.24695905 0.18539619 0.74300003 512
-0.25188097 0.18376668 0.74500006 512
-0.24521336 0.18302667 0.74200004 512
-0.23995937 0.18107939 0.73600006 512
-0.24251556 0.18077588 0.73666668 512
-0.24276321 0.17827557 0.73600006 512
-0.24741691 0.18238167 0.74225008 512
-0.24733335 0.18020001 0.74200004 512
-0.25014859 0.18224828 0.74266672 512
-0.20866263 0.17823312 0.76075006 513
-0.2071 0.17585333 0.76300001 513
-0.20859382 0.17527714 0.76050007 513
-0.20755239 0.17250212 0.7604 513
-0.20863049 0.17109144 0.75800002 513
-0.20510763 0.16886953 0.76100004 513
-0.20773335 0.16864762 0.76000011 513
-0.20782413 0.16510065 0.76033336 513
-0.21062858 0.17805716 0.76000005 513
-0.21151811 0.17758857 0.75800002 513
-0.21240002 0.17784001 0.75600004 513
-0.21270065 0.17633365 0.7536667 513
-0.21585999 0.17569999 0.75300002 513
-0.2146184 0.1764216 0.75200003 513
-0.21062858 0.17516191 0.76000005 513
-0.21151811 0.17470096 0.75800002 513
-0.21062858 0.17299049 0.76000005 513
-0.21103685 0.1715727 0.75800008 513
-0.21240002 0.17208001 0.75600004 513
-0.21079622 0.16820382 0.75799996 513
-0.21062858 0.16502857 0.76000005 513
-0.21151811 0.16459429 0.75800002 513
-0.21312001 0.16776001 0.75600004 513
-0.21283811 0.17400953 0.75500005 513
-0.21307778 0.17089367 0.75500005 513
-0.21283811 0.16753811 0.75500005 513
-0.21283811 0.16394287 0.75500005 513
-0.21528524 0.17366335 0.75350004 513
-0.21528524 0.1707938 0.75350004 513
-0.21772191 0.1733181 0.75200003 513
-0.21757667 0.17034048 0.75150007 513
-0.21542762 0.1673162 0.75400001 513
-0.21509366 0.16389303 0.7536667 513
-0.21557334 0.16257524 0.75200003 513
-0.21721953 0.16712047 0.75150007 513
-0.21642858 0.16285716 0.75000006 513
-0.2172762 0.16527238 0.74800003 513
-0.2172762 0.16242287 0.74800003 513
-0.2078694 0.16224016 0.76050001 513
-0.21062858 0.16285716 0.76000005 513
-0.21103685 0.16146602 0.75800008 513
-0.21062858 0.15851431 0.76000005 513
-0.21066476 0.15878032 0.75666666 513
-0.21240002 0.16056001 0.75600004 513
-0.21062858 0.15706667 0.76000005 513
-0.21066475 0.1554165 0.75666666 513
-0.21079621 0.15304382 0.75800002 513
-0.21240002 0.15480001 0.75600004 513
-0.21312001 0.15264001 0.75600004 513
-0.21307778 0.16130637 0.75500005 513
-0.21283811 0.15819049 0.75500005 513
-0.21307778 0.15555398 0.75500005 513
-0.21490379 0.16040097 0.75300002 513
-0.21557334 0.16114287 0.75200003 513
-0.21528524 0.15787572 0.75350004 513
-0.21743143 0.16021334 0.75100005 513
-0.21772191 0.15756191 0.75200003 513
-0.21542859 0.15510762 0.75400001 513
-0.21557096 0.15233764 0.75450009 513
-0.21777238 0.1546638 0.75300002 513
-0.2184381 0.15541334 0.75200003 513
-0.21801142 0.1520343 0.75300002 513
-0.21062858 0.14982858 0.76000005 513
-0.21062858 0.14765716 0.76000005 513
-0.21976192 0.17023812 0.75000006 513
-0.21933976 0.17233881 0.74775004 513
-0.22012572 0.16883428 0.74800003 513
-0.21928573 0.16714287 0.75000006 513
-0.21976954 0.16562858 0.74800003 513
-0.21941334 0.16242287 0.74800003 513
-0.22203976 0.16226025 0.74725008 513
-0.21928573 0.15642859 0.75000006 513
-0.21941334 0.15957333 0.74800003 513
-0.21965079 0.15696128 0.74799997 513
-0.21995683 0.15418415 0.75066668 513
-0.22012572 0.15458667 0.74800003 513
-0.19873334 0.1672 0.77000004 514
-0.20260572 0.16969143 0.76800001 514
-0.20309334 0.16652189 0.76799995 514
-0.20317191 0.17034334 0.76600003 514
-0.20380287 0.16727905 0.76700002 514
-0.20510763 0.17176858 0.76100004 514
-0.20477466 0.16931334 0.76300001 514
-0.20539272 0.16601557 0.76566672 514
-0.20564666 0.16640668 0.76300001 514
-0.19707143 0.16238096 0.77500004 514
-0.19854762 0.16238096 0.77500004 514
-0.19656287 0.16490668 0.77300006 514
-0.19873334 0.16133335 0.77000004 514
-0.19657938 0.15918255 0.77500004 514
-0.19657938 0.15623017 0.77500004 514
-0.19854762 0.16016667 0.77500004 514
-0.19854762 0.1564762 0.77500004 514
-0.19851428 0.15807618 0.77200001 514
-0.19873334 0.15913334 0.77000004 514
-0.19924952 0.15587047 0.77200001 514
-0.19864237 0.15302858 0.77250004 514
-0.20093335 0.16426668 0.77000004 514
-0.20067239 0.16112478 0.76899999 514
-0.20260572 0.16384 0.76800001 514
-0.20260572 0.16091429 0.76800001 514
-0.20041141 0.15798858 0.76800001 514
-0.20054144 0.15516332 0.76850009 514
-0.20260572 0.15433143 0.76800001 514
-0.20067143 0.15233524 0.76900005 514
-0.20260572 0.15213715 0.76800001 514
-0.20260572 0.14921144 0.76800001 514
-0.20380287 0.16362667 0.76700002 514
-0.20380287 0.16070476 0.76700002 514
-0.20293953 0.15768048 0.7665 514
-0.20331587 0.15510444 0.76700002 514
-0.20526381 0.16362667 0.76700002 514
-0.20564666 0.16277334 0.76300001 514
-0.20526381 0.16070476 0.76700002 514
-0.20564666 0.15986666 0.76300001 514
-0.20782383 0.15930794 0.76033336 514
-0.20472857 0.15737143 0.76500005 514
-0.20564666 0.15696 0.76300001 514
-0.2049962 0.15466 0.76600003 514
-0.20564666 0.15478 0.76300001 514
-0.20483811 0.15272382 0.76000005 514
-0.20760706 0.15661123 0.76060009 514
-0.20863049 0.15520953 0.75800002 514
-0.20773335 0.15344763 0.76000005 514
-0.20380287 0.15193905 0.76700002 514
-0.20380287 0.14901716 0.76700002 514
-0.20472857 0.15154287 0.76500005 514
-0.20564666 0.15042001 0.76300001 514
-0.2049962 0.14882192 0.76600003 514
-0.20564666 0.14824 0.76300001 514
-0.20483811 0.1512762 0.76000005 514
-0.2074393 0.15023977 0.76025003 514
-0.20790857 0.15087809 0.75800002 514
-0.2078694 0.14775445 0.76050001 514
-0.21757668 0.20039953 0.75150007 515
-0.21133208 0.19835047 0.75733334 515
-0.21123905 0.1946581 0.75700003 515
-0.21240002 0.19800001 0.75600004 515
-0.21240002 0.19440001 0.75600004 515
-0.21065667 0.19190049 0.75750005 515
-0.21065667 0.18901381 0.75750005 515
-0.21240002 0.19152001 0.75600004 515
-0.21240002 0.18864001 0.75600004 515
-0.21355717 0.19773811 0.75500005 515
-0.21355715 0.19414288 0.75500005 515
-0.21355715 0.19126669 0.75500005 515
-0.21355715 0.18839049 0.75500005 515
-0.21542762 0.19747619 0.75400001 515
-0.21542762 0.19388571 0.75400007 515
-0.21729429 0.19721429 0.75300002 515
-0.2184381 0.19695239 0.75200003 515
-0.21729429 0.19362858 0.75300002 515
-0.2184381 0.19337144 0.75200003 515
-0.21528524 0.19088715 0.75350004 515
-0.21528524 0.18801573 0.75350004 515
-0.21729429 0.19147715 0.75300002 515
-0.21796064 0.19026794 0.75200003 515
-0.21729429 0.18860857 0.75300002 515
-0.21796064 0.18740319 0.75200003 515
-0.21085079 0.18632762 0.75733334 515
-0.21151811 0.18336383 0.75800002 515
-0.21240002 0.18216 0.75600004 515
-0.2129619 0.18047619 0.75800002 515
-0.21255526 0.18526858 0.75400007 515
-0.21288924 0.18271589 0.75433344 515
-0.21355715 0.17976192 0.75500005 515
-0.21442571 0.18502286 0.75300002 515
-0.21557334 0.18477714 0.75200003 515
-0.21442571 0.18287143 0.75300002 515
-0.21509588 0.18167365 0.75200003 515
-0.21728952 0.18485145 0.75133342 515
-0.21690476 0.18119049 0.75000006 515
-0.2172762 0.18308191 0.74800003 515
-0.2172762 0.18165715 0.74800003 515
-0.21485715 0.17904761 0.75200003 515
-0.21728714 0.17869 0.75050002 515
-0.21743143 0.17594859 0.75100005 515
-0.21928573 0.20000002 0.75000006 515
-0.22012572 0.19946668 0.74800003 515
-0.2212543 0.20204572 0.74700004 515
-0.22203977 0.19926643 0.74725002 515
-0.21985717 0.19614287 0.75000006 515
-0.21976192 0.19309525 0.75000006 515
-0.22012572 0.19732954 0.74800003 515
-0.22012572 0.19163048 0.74800003 515
-0.2221138 0.19577383 0.7475 515
-0.22211382 0.19221431 0.74750006 515
-0.21976192 0.18976192 0.75000006 515
-0.21976192 0.18738095 0.75000006 515
-0.22012572 0.19020571 0.74800003 515
-0.22012572 0.18593144 0.74800003 515
-0.22218832 0.18942976 0.74775004 515
-0.22211429 0.18651953 0.74750006 515
-0.22410001 0.19422001 0.74700004 515
-0.22435145 0.19540286 0.74500006 515
-0.22410001 0.19208571 0.74700004 515
-0.22491907 0.19157144 0.74500006 515
-0.22410001 0.18924001 0.74700004 515
-0.22491907 0.18944287 0.74500006 515
-0.22496143 0.18723097 0.74750006 515
-0.22350001 0.18518573 0.74500006 515
-0.22360763 0.19813335 0.74300003 515
-0.22613335 0.19433333 0.74200004 515
-0.2262093 0.19086406 0.74225008 515
-0.22431524 0.18751904 0.74300003 515
-0.22431524 0.18468857 0.74300003 515
-0.2262093 0.18803643 0.74225008 515
-0.2262093 0.1852093 0.74225003 515
-0.22834286 0.19028571 0.74000001 515
-0.22872446 0.18820889 0.74200004 515
-0.22904761 0.18676192 0.74000001 515
-0.22825335 0.18585335 0.74200004 515
-0.22857778 0.1844127 0.74000001 515
-0.23100524 0.18734001 0.73950005 515
-0.23100524 0.18452287 0.73950005 515
-0.23341715 0.18645334 0.73600006 515
-0.21933977 0.18373263 0.74775004 515
-0.21941334 0.18094476 0.74800003 515
-0.22196572 0.18354857 0.74700004 515
-0.22196572 0.18070288 0.74700004 515
-0.21941334 0.17809524 0.74800003 515
-0.21941334 0.17524572 0.74800003 515
-0.22211382 0.17797619 0.74750006 515
-0.22203977 0.17506976 0.74725002 515
-0.22457428 0.18331142 0.74700004 515
-0.22491907 0.18376668 0.74500006 515
-0.22410001 0.18070287 0.74700004 515
-0.22491907 0.18021905 0.74500006 515
-0.2263381 0.18234763 0.74500006 515
-0.2263381 0.18092859 0.74500006 515
-0.22420955 0.17738095 0.74500006 515
-0.22397304 0.17477937 0.74500006 515
-0.22647017 0.18263777 0.74233341 515
-0.22647017 0.1793381 0.74233341 515
-0.22628525 0.17678571 0.74250007 515
-0.2262093 0.17389882 0.74225003 515
-0.22896001 0.18232 0.74200004 515
-0.22872446 0.17972891 0.74200004 515
-0.22904761 0.17830476 0.74000001 515
-0.23045714 0.18182857 0.74000001 515
-0.23092699 0.1787746 0.74000001 515
-0.23061334 0.17874287 0.73600006 515
-0.22825335 0.17596 0.74200004 515
-0.22857778 0.1764254 0.74000001 515
-0.23100524 0.17607144 0.73950005 515
-0.19633335 0.21257143 0.77500004 516
-0.19656287 0.21128668 0.77300006 516
-0.19847524 0.21092668 0.76900005 516
-0.19707143 0.20961906 0.77500004 516
-0.1961 0.20794 0.77700001 516
-0.19657938 0.20642065 0.77500004 516
-0.19777904 0.20880762 0.77200001 516
-0.19821715 0.20772572 0.76800001 516
-0.19803524 0.20613334 0.77300006 516
-0.19873334 0.20533335 0.77000004 516
-0.19669199 0.20320401 0.77700001 516
-0.19707143 0.20445238 0.77500004 516
-0.19683999 0.1998 0.77700001 516
-0.19854762 0.20223811 0.77500004 516
-0.19854762 0.19928572 0.77500004 516
-0.19864237 0.20232239 0.77250004 516
-0.19873334 0.20240001 0.77000004 516
-0.19924952 0.19851428 0.77200001 516
-0.19683999 0.19683999 0.77700001 516
-0.19696619 0.19400525 0.77750003 516
-0.19854762 0.19633335 0.77500004 516
-0.19854762 0.19338095 0.77500004 516
-0.19937858 0.19569954 0.77250004 516
-0.19950764 0.1936181 0.77300006 516
-0.19821715 0.19090286 0.76800001 516
-0.19412857 0.19116572 0.778 516
-0.19512096 0.18844381 0.77900004 516
-0.19659333 0.19116665 0.77700001 516
-0.19707143 0.18969047 0.77500004 516
-0.19683999 0.18796001 0.77700001 516
-0.19854762 0.19042857 0.77500004 516
-0.19854762 0.1867381 0.77500004 516
-0.19924952 0.18969142 0.77200001 516
-0.19803524 0.18772858 0.77300006 516
-0.19873334 0.18626668 0.77000004 516
-0.19854762 0.18526191 0.77500004 516
-0.20041141 0.2077257 0.76800001 516
-0.20054142 0.20493381 0.76849997 516
-0.20309334 0.20455618 0.76799995 516
-0.20075871 0.20149143 0.76933336 516
-0.20093335 0.198 0.77000004 516
-0.20333715 0.20114286 0.76800007 516
-0.20333715 0.19748572 0.76800001 516
-0.20072 0.19483809 0.77200001 516
-0.20093334 0.19580001 0.77000004 516
-0.19968 0.1916343 0.76800001 516
-0.20333715 0.19455999 0.76800001 516
-0.20406857 0.19236572 0.76800001 516
-0.20041141 0.18870857 0.76800001 516
-0.20067143 0.18602476 0.76900005 516
-0.20260572 0.18870857 0.76800001 516
-0.20260572 0.18578285 0.76800001 516
-0.20380287 0.20526381 0.76700002 516
-0.20585953 0.20439953 0.7665 516
-0.20088096 0.19357619 0.76700002 516
-0.20088096 0.19138476 0.76700002 516
-0.20282888 0.19114129 0.76700002 516
-0.20599429 0.20088094 0.76700002 516
-0.20599428 0.19722858 0.76700002 516
-0.20764287 0.20108572 0.76500005 516
-0.2071 0.19837999 0.76300001 516
-0.2071 0.19620001 0.76300001 516
-0.2086397 0.19922222 0.76066667 516
-0.20866263 0.19562121 0.76075006 516
-0.20599428 0.19430666 0.76700002 516
-0.20585953 0.19126049 0.7665 516
-0.2071 0.19329333 0.76300001 516
-0.2071 0.19038667 0.76300001 516
-0.20859382 0.19266 0.76050007 516
-0.20859382 0.18976286 0.76050007 516
-0.21062858 0.19542858 0.76000005 516
-0.20380287 0.18846285 0.76700002 516
-0.20380287 0.18554096 0.76700002 516
-0.20559096 0.18809383 0.76550007 516
-0.20572476 0.18529905 0.76600003 516
-0.2071 0.18748 0.76300001 516
-0.2071 0.18457334 0.76300001 516
-0.20859382 0.18686572 0.76050007 516
-0.20859382 0.18396857 0.76050007 516
-0.2071 0.18166667 0.76300001 516
-0.20873144 0.18119049 0.76100004 516
-0.21062858 0.18601905 0.76000005 516
-0.21062858 0.18384764 0.76000005 516
-0.21135239 0.18095239 0.76000005 516
-0.22511241 0.23223618 0.74800003 517
-0.22503692 0.22931024 0.74775004 517
-0.22724953 0.23223619 0.74800003 517
-0.22780952 0.22923383 0.74750006 517
-0.22481143 0.22623429 0.74700004 517
-0.22420955 0.22350001 0.74500006 517
-0.22481143 0.22267714 0.74700004 517
-0.22765718 0.22552288 0.74700004 517
-0.22765717 0.22196573 0.74700004 517
-0.22704762 0.21853335 0.74500006 517
-0.23832001 0.23256001 0.75600004 517
-0.24063954 0.23199382 0.75650001 517
-0.24264002 0.23184001 0.75600004 517
-0.2412 0.22968002 0.75600004 517
-0.24264002 0.22968002 0.75600004 517
-0.23235428 0.23092002 0.75300002 517
-0.23602991 0.23114422 0.75420004 517
-0.23142858 0.22785716 0.75000006 517
-0.2365232 0.22791366 0.75333339 517
-0.23491049 0.2263162 0.75200003 517
-0.23587191 0.2230062 0.75050002 517
-0.23081145 0.22511239 0.74800003 517
-0.23081145 0.22226286 0.74800003 517
-0.23294857 0.22440001 0.74800003 517
-0.23294857 0.22226286 0.74800003 517
-0.23989125 0.22753048 0.75460011 517
-0.23952571 0.22446573 0.75300002 517
-0.23889048 0.22243905 0.75100005 517
-0.24318191 0.22765049 0.75500005 517
-0.24263334 0.22398764 0.75300002 517
-0.24135619 0.22273524 0.75200003 517
-0.2357143 0.2207143 0.75000006 517
-0.23058024 0.21919358 0.74725002 517
-0.23121428 0.21698572 0.74700004 517
-0.23059525 0.21498573 0.74500006 517
-0.23401713 0.21905714 0.74800003 517
-0.23411256 0.21632272 0.74716669 517
-0.23548287 0.21414001 0.74700004 517
-0.23272383 0.21356669 0.74500006 517
-0.23889048 0.22029334 0.75100005 517
-0.23880953 0.21738096 0.75000006 517
-0.24311143 0.22088 0.75300002 517
-0.24135619 0.22058669 0.75200003 517
-0.24311143 0.21872857 0.75300002 517
-0.24183364 0.21748318 0.75200003 517
-0.23722287 0.21585144 0.74800003 517
-0.23928572 0.21500002 0.75000006 517
-0.24207239 0.21485713 0.75200003 517
-0.2407143 0.21214287 0.75000006 517
-0.23759206 0.2133819 0.74766666 517
-0.23864762 0.21157715 0.74800003 517
-0.23698097 0.21001907 0.74500006 517
-0.2409146 0.21053366 0.74766666 517
-0.22856097 0.2151162 0.74300003 517
-0.23209906 0.2115781 0.74300003 517
-0.23202223 0.20940889 0.74200004 517
-0.23422192 0.2115781 0.74300003 517
-0.23458858 0.20912571 0.74266672 517
-0.24454573 0.21801144 0.75300002 517
-0.23769049 0.2078905 0.74500006 517
-0.23975144 0.20844859 0.74700004 517
-0.24005556 0.20694447 0.74500006 517
-0.2351646 0.20631656 0.74240005 517
-0.24336669 0.20718098 0.74500006 517
-0.24129809 0.20662478 0.74300003 517
-0.21859048 0.25454286 0.75500005 518
-0.22493716 0.25521809 0.75699997 518
-0.22536001 0.25272003 0.75600004 518
-0.22906572 0.25658256 0.76033336 518
-0.2274 0.25483239 0.75800002 518
-0.23264858 0.25874001 0.76100004 518
-0.23192382 0.25656575 0.76100004 518
-0.22944763 0.25405714 0.76000005 518
-0.22748001 0.25198287 0.75666666 518
-0.23161906 0.25405714 0.76000005 518
-0.23040001 0.25128001 0.75600004 518
-0.23112001 0.2484 0.75600004 518
-0.22146669 0.25454286 0.75500005 518
-0.22102715 0.25116712 0.75350004 518
-0.22102715 0.24829572 0.75350004 518
-0.2241032 0.25142702 0.75500005 518
-0.22434287 0.2487905 0.75500005 518
-0.22721907 0.2487905 0.75500005 518
-0.22985555 0.24903017 0.75500005 518
-0.22088 0.24598002 0.75300002 518
-0.22058669 0.24422096 0.75200003 518
-0.22088 0.24311143 0.75300002 518
-0.22374859 0.24526288 0.75300002 518
-0.22374859 0.24311143 0.75300002 518
-0.22345144 0.24135619 0.75200003 518
-0.22345144 0.23920764 0.75200003 518
-0.22345144 0.23705906 0.75200003 518
-0.22676811 0.24542621 0.75350004 518
-0.22661714 0.24239428 0.75300002 518
-0.22994334 0.24575192 0.75450009 518
-0.22948572 0.24239428 0.75300002 518
-0.22590001 0.24024285 0.75300002 518
-0.22655493 0.23896891 0.75200003 518
-0.22567619 0.23616254 0.75066668 518
-0.23013239 0.2401889 0.75433332 518
-0.22846477 0.23849145 0.75200003 518
-0.23020287 0.23665714 0.75300002 518
-0.22846477 0.23705906 0.75200003 518
-0.22582477 0.23437335 0.74800003 518
-0.22724953 0.23437335 0.74800003 518
-0.23409811 0.25656575 0.76100004 518
-0.23379049 0.25405714 0.76000005 518
-0.23256001 0.25128001 0.75600004 518
-0.23304002 0.24887998 0.75600004 518
-0.23369049 0.25094765 0.75500005 518
-0.23369049 0.24950954 0.75500005 518
-0.23400001 0.24552001 0.75600004 518
-0.23461905 0.2440038 0.75800002 518
-0.23389713 0.2411162 0.75800002 518
-0.23374332 0.23807192 0.75750005 518
-0.2375662 0.24118716 0.76050007 518
-0.23821169 0.23893598 0.76025003 518
-0.23606287 0.23750667 0.75800002 518
-0.23273176 0.246154 0.75500005 518
-0.2322524 0.24303812 0.75500005 518
-0.22959144 0.23316857 0.75100005 518
-0.23400001 0.23544002 0.75600004 518
-0.23958096 0.23668572 0.76000005 518
-0.2371943 0.23503049 0.75700003 518
-0.24247621 0.23596191 0.76000005 518
-0.24039428 0.23534095 0.75800002 518
-0.23252667 0.2339635 0.75433344 518
-0.2351286 0.23369049 0.75500005 518
-0.20791493 0.22602667 0.76066667 519
-0.20510763 0.21960287 0.76100004 519
-0.20791493 0.2231289 0.76066667 519
-0.2078694 0.22018303 0.76050001 519
-0.20764287 0.21784288 0.76500005 519
-0.20764287 0.21565714 0.76500005 519
-0.20855333 0.21436667 0.76300001 519
-0.20818648 0.21745925 0.76060009 519
-0.20888127 0.21467747 0.76066667 519
-0.21036953 0.22479619 0.75733334 519
-0.21068096 0.22506192 0.75500005 519
-0.21283811 0.22434288 0.75500005 519
-0.2152835 0.22438383 0.75433344 519
-0.21557334 0.22273524 0.75200003 519
-0.21642858 0.22285715 0.75000006 519
-0.2172762 0.22511239 0.74800003 519
-0.2172762 0.22226286 0.74800003 519
-0.21036953 0.22239113 0.75733334 519
-0.21062858 0.22076192 0.76000005 519
-0.21062858 0.21714288 0.76000005 519
-0.21151811 0.21729334 0.75800002 519
-0.21062858 0.21424763 0.76000005 519
-0.21068096 0.22074763 0.75500005 519
-0.21020161 0.21835081 0.75500005 519
-0.21241477 0.2210262 0.75350004 519
-0.21203524 0.21825047 0.75300002 519
-0.21270858 0.21700571 0.75200003 519
-0.21068096 0.21499525 0.75500005 519
-0.21068096 0.21283811 0.75500005 519
-0.21241477 0.2152862 0.75350004 519
-0.21227428 0.21227428 0.75300002 519
-0.21442571 0.22016285 0.75300002 519
-0.21509588 0.22082542 0.75200003 519
-0.21485715 0.21772191 0.75200003 519
-0.21642858 0.22000001 0.75000006 519
-0.21642858 0.21642858 0.75000006 519
-0.2172762 0.21941334 0.74800003 519
-0.21680129 0.21680129 0.74799997 519
-0.21442571 0.21514285 0.75300002 519
-0.21557334 0.21485715 0.75200003 519
-0.21442571 0.21227428 0.75300002 519
-0.21557334 0.21199238 0.75200003 519
-0.21642858 0.21428573 0.75000006 519
-0.21642858 0.21142858 0.75000006 519
-0.2172762 0.2137143 0.74800003 519
-0.2172762 0.21086477 0.74800003 519
-0.20599428 0.21037714 0.76700002 519
-0.20791429 0.21302001 0.76600003 519
-0.20855333 0.21218666 0.76300001 519
-0.20764287 0.20982859 0.76500005 519
-0.20855333 0.20928 0.76300001 519
-0.20918097 0.21135239 0.76000005 519
-0.20931858 0.20859382 0.76050007 519
-0.20764287 0.20691431 0.76500005 519
-0.20855333 0.20637333 0.76300001 519
-0.20764287 0.204 0.76500005 519
-0.20945621 0.20583239 0.76100004 519
-0.20866263 0.20286644 0.76075006 519
-0.21007429 0.21079621 0.75800002 519
-0.21062858 0.20773335 0.76000005 519
-0.21103685 0.20814921 0.75800008 519
-0.21240002 0.20664001 0.75600004 519
-0.21062858 0.20556192 0.76000005 519
-0.21151811 0.20502095 0.75800002 519
-0.21062858 0.20194286 0.76000005 519
-0.21066605 0.20201714 0.75666666 519
-0.21240002 0.2052 0.75600004 519
-0.21240002 0.20088001 0.75600004 519
-0.21068096 0.20996192 0.75500005 519
-0.21255526 0.20968382 0.75400007 519
-0.21270065 0.20695971 0.7536667 519
-0.21307778 0.20396985 0.75500005 519
-0.21307778 0.20157303 0.75500005 519
-0.21442571 0.20940572 0.75300002 519
-0.21557334 0.20912763 0.75200003 519
-0.21442571 0.20653716 0.75300002 519
-0.21557334 0.20626286 0.75200003 519
-0.21642858 0.20857143 0.75000006 519
-0.21642858 0.2057143 0.75000006 519
-0.2172762 0.20801523 0.74800003 519
-0.2172762 0.20516571 0.74800003 519
-0.21442571 0.20366858 0.75300002 519
-0.21557334 0.20339811 0.75200003 519
-0.21509366 0.20073812 0.7536667 519
-0.21557334 0.20124954 0.75200003 519
-0.21709715 0.20279874 0.75066668 519
-0.2172762 0.20302857 0.74800003 519
-0.21062858 0.19904763 0.76000005 519
-0.21933976 0.22218882 0.74775004 519
-0.21926619 0.21926667 0.74750006 519
-0.2191931 0.21634643 0.74725002 519
-0.21926619 0.21357144 0.74750006 519
-0.21926619 0.21072382 0.74750006 519
-0.21926619 0.20787619 0.74750006 519
-0.21926619 0.20502859 0.74750006 519
-0.2212543 0.20844859 0.74700004 519
-0.22160794 0.20694447 0.74500006 519
-0.2212543 0.20418 0.74700004 519
-0.22137144 0.20434287 0.74500006 519
-0.21933977 0.20224833 0.74775004 519
-0.22208096 0.2022143 0.74500006 519
-0.22148477 0.20450191 0.74300003 519
-0.22148477 0.2002562 0.74300003 519
-0.22360763 0.20096381 0.74300003 519
-0.19387999 0.23828 0.77700001 520
-0.19190666 0.23414001 0.778 520
-0.1941282 0.23470001 0.77739996 520
-0.19264287 0.2339762 0.77500004 520
-0.19446063 0.23102953 0.77833337 520
-0.19264287 0.23102382 0.77500004 520
-0.19707143 0.23988096 0.77500004 520
-0.1961 0.23828 0.77700001 520
-0.19707143 0.23766667 0.77500004 520
-0.19854762 0.23766667 0.77500004 520
-0.19950764 0.23705336 0.77300006 520
-0.19676159 0.23428667 0.77766663 520
-0.19657938 0.23446827 0.77500004 520
-0.19709238 0.23117715 0.778 520
-0.19854762 0.2339762 0.77500004 520
-0.19854762 0.23028572 0.77500004 520
-0.1994216 0.23327176 0.77266669 520
-0.19937858 0.22954334 0.77250004 520
-0.19190191 0.22016764 0.78100002 520
-0.19388571 0.22062857 0.78000003 520
-0.19437906 0.22850667 0.77900004 520
-0.19437906 0.22553907 0.77900004 520
-0.19445936 0.22262889 0.77833337 520
-0.19429238 0.21898063 0.77766663 520
-0.19709238 0.22821334 0.778 520
-0.1961 0.22496 0.77700001 520
-0.19707143 0.22438097 0.77500004 520
-0.19854762 0.22733334 0.77500004 520
-0.19854762 0.22438097 0.77500004 520
-0.19873334 0.22586668 0.77000004 520
-0.19924952 0.22351238 0.77200001 520
-0.19608732 0.22167461 0.77500004 520
-0.19559525 0.21847621 0.77500004 520
-0.19656287 0.22012097 0.77300006 520
-0.19656287 0.21791241 0.77300006 520
-0.19803524 0.22085716 0.77300006 520
-0.19873334 0.22 0.77000004 520
-0.19803524 0.21791241 0.77300006 520
-0.19873334 0.21706668 0.77000004 520
-0.20145524 0.23674667 0.77200001 520
-0.2032692 0.23596889 0.76866668 520
-0.2016023 0.23277637 0.77200001 520
-0.20020001 0.23393334 0.77000004 520
-0.20219047 0.23012953 0.77200001 520
-0.2005143 0.2283581 0.76933336 520
-0.20323524 0.23216572 0.76899999 520
-0.20260572 0.22820571 0.76800001 520
-0.20553142 0.23113143 0.76800001 520
-0.20054144 0.2254262 0.76850009 520
-0.20054142 0.22249952 0.76849997 520
-0.20260572 0.22527999 0.76800001 520
-0.20260572 0.22235429 0.76800001 520
-0.20067143 0.21971428 0.76900005 520
-0.20067143 0.21678478 0.76900005 520
-0.20333715 0.21942857 0.76800001 520
-0.20333715 0.21650286 0.76800001 520
-0.20380287 0.23448285 0.76700002 520
-0.20380287 0.23156095 0.76700002 520
-0.20380287 0.22790858 0.76700002 520
-0.20635952 0.2319262 0.76700002 520
-0.20599428 0.22790858 0.76700002 520
-0.20782381 0.23115842 0.76566672 520
-0.20380287 0.22498667 0.76700002 520
-0.20380287 0.22206476 0.76700002 520
-0.20599428 0.22498667 0.76700002 520
-0.20557112 0.22211461 0.76633334 520
-0.20599428 0.21914285 0.76700002 520
-0.20599428 0.21622096 0.76700002 520
-0.19412857 0.2163581 0.778 520
-0.19462 0.21312001 0.77700001 520
-0.19608732 0.21527779 0.77500004 520
-0.1961 0.21386001 0.77700001 520
-0.19656287 0.21570382 0.77300006 520
-0.19803524 0.21496764 0.77300006 520
-0.19873334 0.21413335 0.77000004 520
-0.19790715 0.2118862 0.77250004 520
-0.20067143 0.21385525 0.76900005 520
-0.20041141 0.21065143 0.76800001 520
-0.20333715 0.21357714 0.76800001 520
-0.20333715 0.21065143 0.76800001 520
-0.20309334 0.20796953 0.76799995 520
-0.20553142 0.20845714 0.76800001 520
-0.20380287 0.20672476 0.76700002 520
-0.20599428 0.21329907 0.76700002 520
-0.20623778 0.20721175 0.76700002 520
-0.20380287 0.24105714 0.76700002 521
-0.20806889 0.24537112 0.76300001 521
-0.20945621 0.24786858 0.76100004 521
-0.20945621 0.24496952 0.76100004 521
-0.20572476 0.24366096 0.76600003 521
-0.20572476 0.24074285 0.76600003 521
-0.2071 0.24270667 0.76300001 521
-0.2071 0.23980001 0.76300001 521
-0.20873144 0.24207048 0.76100004 521
-0.20866263 0.2390931 0.76075006 521
-0.21151811 0.24977905 0.75800002 521
-0.21240002 0.24912 0.75600004 521
-0.21319762 0.25777858 0.75500005 521
-0.21283811 0.25454286 0.75500005 521
-0.21269667 0.25149953 0.75450003 521
-0.21355715 0.24879049 0.75500005 521
-0.21571432 0.25813809 0.75500005 521
-0.21571431 0.25454286 0.75500005 521
-0.21542859 0.2513324 0.75400001 521
-0.21571431 0.2487905 0.75500005 521
-0.21801142 0.25099999 0.75300002 521
-0.21844524 0.2486262 0.75450009 521
-0.21062858 0.24754286 0.76000005 521
-0.21151811 0.24689144 0.75800002 521
-0.21076715 0.24480811 0.76050007 521
-0.21151811 0.2440038 0.75800002 521
-0.21240002 0.24624002 0.75600004 521
-0.21240002 0.24264002 0.75600004 521
-0.21062858 0.2417524 0.76000005 521
-0.21123905 0.24079905 0.75700003 521
-0.21062858 0.23885715 0.76000005 521
-0.21096 0.2376 0.75600004 521
-0.21240002 0.23688 0.75600004 521
-0.21355715 0.24591431 0.75500005 521
-0.21307778 0.24327779 0.75500005 521
-0.21283811 0.24016193 0.75500005 521
-0.21307778 0.23752542 0.75500005 521
-0.21542858 0.24558954 0.75400007 521
-0.21514285 0.24239428 0.75300002 521
-0.21777238 0.24550192 0.75300002 521
-0.2184381 0.24422096 0.75200003 521
-0.21801142 0.24239428 0.75300002 521
-0.21514285 0.23952571 0.75300002 521
-0.21542762 0.23697144 0.75400007 521
-0.21801144 0.24024285 0.75300002 521
-0.21772191 0.23849145 0.75200003 521
-0.21801144 0.23737429 0.75300002 521
-0.21772191 0.23562667 0.75200003 521
-0.20331587 0.23837875 0.76700002 521
-0.20559095 0.23767 0.76550001 521
-0.20599428 0.23521334 0.76700002 521
-0.2071 0.23689334 0.76300001 521
-0.20764287 0.23460001 0.76500005 521
-0.20855333 0.23326001 0.76300001 521
-0.20852548 0.23603931 0.76025003 521
-0.20878954 0.23341048 0.76033336 521
-0.2085938 0.22959858 0.76050001 521
-0.21037856 0.23487477 0.75650001 521
-0.21062858 0.23379049 0.76000005 521
-0.21007429 0.23173143 0.75800002 521
-0.20988953 0.22864254 0.75733334 521
-0.21068096 0.23153335 0.75500005 521
-0.21269667 0.23425381 0.75450003 521
-0.21269667 0.23137954 0.75450003 521
-0.21068096 0.2279381 0.75500005 521
-0.21264954 0.22773749 0.75433344 521
-0.21490379 0.23354952 0.75300002 521
-0.21557334 0.23419429 0.75200003 521
-0.21490379 0.23068096 0.75300002 521
-0.21557334 0.23132953 0.75200003 521
-0.21772191 0.2334781 0.75200003 521
-0.21729429 0.23020287 0.75300002 521
-0.217767 0.23064701 0.75133342 521
-0.21514285 0.22733431 0.75300002 521
-0.21729429 0.22805142 0.75300002 521
-0.21772191 0.22703239 0.75200003 521
-0.22058669 0.24135619 0.75200003 521
-0.22016285 0.24024285 0.75300002 521
-0.22082542 0.23896891 0.75200003 521
-0.22058669 0.23634286 0.75200003 521
-0.22226286 0.23437335 0.74800003 521
-0.22000001 0.23285714 0.75000006 521
-0.21928573 0.23000002 0.75000006 521
-0.22285715 0.23357144 0.75000006 521
-0.22012572 0.22938666 0.74800003 521
-0.22226286 0.23152381 0.74800003 521
-0.22226286 0.22938666 0.74800003 521
-0.21928573 0.22642858 0.75000006 521
-0.22012572 0.22582477 0.74799997 521
-0.19854762 0.26866668 0.77500004 522
-0.19924952 0.2683619 0.77200001 522
-0.19873334 0.26620001 0.77000004 522
-0.2008024 0.26969188 0.76950002 522
-0.20067143 0.26658669 0.76900005 522
-0.20260572 0.26916569 0.76800001 522
-0.20260572 0.26697144 0.76800001 522
-0.20313872 0.26541939 0.76633334 522
-0.20818686 0.26932517 0.76060009 522
-0.20526381 0.26881525 0.76700002 522
-0.20564666 0.26741332 0.76300001 522
-0.20472857 0.26520002 0.76500005 522
-0.20564666 0.26450667 0.76300001 522
-0.2071 0.26378 0.76300001 522
-0.20782383 0.26647878 0.76033336 522
-0.20818648 0.26381963 0.76060009 522
-0.21079621 0.26782668 0.75800002 522
-0.21079621 0.26566094 0.75800002 522
-0.21062858 0.26274285 0.76000005 522
-0.21103685 0.26301396 0.75800008 522
-0.21312001 0.26208001 0.75600004 522
-0.19512096 0.26263431 0.77900004 522
-0.19412857 0.25933331 0.778 522
-0.1968939 0.26563677 0.77779996 522
-0.19707143 0.2664524 0.77500004 522
-0.19659333 0.26171336 0.77700001 522
-0.19707143 0.26202381 0.77500004 522
-0.19854762 0.26497623 0.77500004 522
-0.19905999 0.26122001 0.77700001 522
-0.19854762 0.26202381 0.77500004 522
-0.19873334 0.26326668 0.77000004 522
-0.19821715 0.25892574 0.76800001 522
-0.19683999 0.259 0.77700001 522
-0.19683999 0.25604001 0.77700001 522
-0.19905999 0.25974 0.77700001 522
-0.19905999 0.25604001 0.77700001 522
-0.19901685 0.25742128 0.77300006 522
-0.19950764 0.25472194 0.77300006 522
-0.19388571 0.25108573 0.78000003 522
-0.19413429 0.24843144 0.78100002 522
-0.19429238 0.25354445 0.77766675 522
-0.19487047 0.25044096 0.778 522
-0.19512096 0.24779621 0.77900004 522
-0.19512096 0.24482858 0.77900004 522
-0.19683999 0.25308001 0.77700001 522
-0.1961 0.25011998 0.77700001 522
-0.19707143 0.24947619 0.77500004 522
-0.19854762 0.25242859 0.77500004 522
-0.19854762 0.24947619 0.77500004 522
-0.19950764 0.25177717 0.77300006 522
-0.19924952 0.24851048 0.77200001 522
-0.1961 0.24716 0.77700001 522
-0.19707143 0.24652381 0.77500004 522
-0.1961 0.24420002 0.77700001 522
-0.19707143 0.24357143 0.77500004 522
-0.19854762 0.24652381 0.77500004 522
-0.19854762 0.24357143 0.77500004 522
-0.19924952 0.24556953 0.77200001 522
-0.19924952 0.24262857 0.77200001 522
-0.19659333 0.24148667 0.77700001 522
-0.19854762 0.24061906 0.77500004 522
-0.19950764 0.23999812 0.77300006 522
-0.20026514 0.26287544 0.76800001 522
-0.19968 0.25892574 0.76800001 522
-0.20260572 0.26258287 0.76800001 522
-0.19968 0.25599998 0.76800001 522
-0.20072 0.25365713 0.77200001 522
-0.20082985 0.25353718 0.76866674 522
-0.20260572 0.25234285 0.76800001 522
-0.20072 0.25145143 0.77200001 522
-0.20166668 0.25080001 0.77000004 522
-0.20067143 0.24754477 0.76900005 522
-0.20346905 0.25031191 0.76849997 522
-0.20309334 0.24697904 0.76799995 522
-0.20067143 0.24461524 0.76900005 522
-0.20067143 0.24168572 0.76900005 522
-0.20333715 0.24429713 0.76800001 522
-0.20260572 0.24137142 0.76800001 522
-0.20067143 0.23875618 0.76900005 522
-0.20260572 0.23771429 0.76800001 522
-0.20088096 0.26078001 0.76700002 522
-0.20088096 0.25858855 0.76700002 522
-0.20321849 0.26224095 0.76700002 522
-0.20280667 0.25825143 0.76600003 522
-0.20088096 0.25566667 0.76700002 522
-0.20307238 0.25566667 0.76700002 522
-0.20331587 0.25298828 0.76700002 522
-0.20541847 0.26140249 0.76540005 522
-0.20564666 0.26232666 0.76300001 522
-0.20545715 0.2579143 0.76500005 522
-0.20709999 0.26087332 0.76300001 522
-0.20782667 0.25724 0.76300001 522
-0.2085938 0.26001859 0.76050001 522
-0.20945621 0.25656575 0.76100004 522
-0.20472857 0.255 0.76500005 522
-0.20564666 0.25433335 0.76300001 522
-0.20572476 0.25241524 0.76600003 522
-0.20764287 0.25572857 0.76500005 522
-0.20806889 0.25409111 0.76300001 522
-0.20837143 0.25208575 0.76500005 522
-0.20945621 0.2536667 0.76100004 522
-0.20945621 0.25076762 0.76100004 522
-0.20380287 0.24763143 0.76700002 522
-0.20572476 0.24949713 0.76600003 522
-0.20572476 0.24657905 0.76600003 522
-0.20837143 0.24917144 0.76500005 522
-0.20764287 0.24698573 0.76500005 522
-0.21062858 0.25984761 0.76000005 522
-0.21151811 0.25916383 0.75800008 522
-0.21062858 0.2562286 0.76000005 522
-0.21151811 0.25555429 0.75800002 522
-0.21240002 0.25920001 0.75600004 522
-0.21062858 0.25260955 0.76000005 522
-0.21103685 0.25290731 0.75800008 522
-0.21062858 0.25043812 0.76000005 522
-0.16680285 0.17384095 0.73900002 523
-0.16452572 0.17149717 0.73200005 523
-0.16360477 0.17056666 0.73100001 523
-0.16430095 0.1684781 0.73100001 523
-0.17761748 0.17430635 0.74500006 523
-0.17809048 0.1724143 0.74500006 523
-0.18092859 0.16531907 0.74500006 523
-0.17030667 0.17384002 0.74200004 523
-0.16843809 0.17407618 0.74000001 523
-0.17242667 0.17384 0.74200004 523
-0.16775525 0.17196669 0.73700005 523
-0.17525367 0.17431016 0.74300003 523
-0.16984761 0.17125715 0.74000001 523
-0.17313334 0.17101334 0.74200004 523
-0.17125715 0.17055237 0.74000001 523
-0.17454667 0.16818666 0.74200004 523
-0.17184621 0.16762 0.73950005 523
-0.16915905 0.16915905 0.73700005 523
-0.16707239 0.16916953 0.73400003 523
-0.16892953 0.16682668 0.73600006 523
-0.16684477 0.16614762 0.73300004 523
-0.17454667 0.16606668 0.74200004 523
-0.17309009 0.16379525 0.73940003 523
-0.17384095 0.16046858 0.73900002 523
-0.16892953 0.16472383 0.73600006 523
-0.17040859 0.16339652 0.73633337 523
-0.17196669 0.1600343 0.73700005 523
-0.16940571 0.15964572 0.73200005 523
-0.17591409 0.17110229 0.74300003 523
-0.17672643 0.1682431 0.74225008 523
-0.17890716 0.16829953 0.74250007 523
-0.17685582 0.16498077 0.74220002 523
-0.17548572 0.1628 0.74000001 523
-0.1761312 0.16063167 0.73975003 523
-0.17938143 0.16452143 0.74300003 523
-0.17878668 0.16182669 0.74200004 523
-0.17830476 0.15998095 0.74000001 523
-0.16667333 0.16166762 0.72980005 523
-0.16716604 0.15881811 0.73033333 523
-0.16917428 0.15803523 0.73100001 523
-0.17384095 0.15835714 0.73900002 523
-0.17173333 0.15701336 0.73600006 523
-0.17080002 0.15337145 0.73200005 523
-0.17607144 0.15776047 0.73949999 523
-0.17618698 0.1546035 0.73900002 523
-0.1787746 0.15763174 0.74000001 523
-0.17900953 0.15504763 0.74000001 523
-0.1733705 0.15652478 0.73700005 523
-0.17383844 0.15465303 0.73700005 523
-0.17618698 0.15225746 0.73900002 523
-0.17876762 0.15202285 0.73900002 523
-0.17908317 0.14950919 0.73933339 523
-0.1740724 0.15161145 0.73700005 523
-0.1721943 0.14988571 0.73200005 523
-0.17605859 0.14870334 0.73650002 523
-0.17406286 0.14889716 0.73400003 523
-0.17758192 0.14810191 0.73700005 523
-0.16732286 0.15552001 0.72900003 523
-0.16732286 0.15274286 0.72900003 523
-0.16917428 0.15594667 0.73100001 523
-0.16917428 0.15316191 0.73100001 523
-0.16732286 0.14996572 0.72900003 523
-0.16975477 0.15027477 0.73049998 523
-0.16940571 0.14788286 0.72900003 523
-0.16971111 0.14615937 0.72733337 523
-0.17265524 0.14759238 0.73100001 523
-0.17971428 0.14729524 0.74000001 523
-0.18112381 0.15716191 0.74000001 523
-0.18112381 0.15504763 0.74000001 523
-0.18134826 0.15178825 0.73900002 523
-0.1836943 0.15131906 0.73900002 523
-0.18109144 0.14880382 0.73700005 523
-0.18319716 0.14880382 0.73700005 523
-0.18182857 0.14659047 0.74000001 523
-0.18394285 0.14729524 0.74000001 523
-0.18916954 0.18321143 0.78200006 524
-0.18892668 0.18074572 0.78100002 524
-0.18942858 0.17457142 0.78000003 524
-0.1899143 0.16980574 0.78200006 524
-0.18844381 0.17879906 0.77900004 524
-0.18918572 0.17657334 0.77900004 524
-0.19190191 0.18595238 0.78100002 524
-0.19157271 0.18314731 0.78066665 524
-0.19388571 0.18645716 0.78000003 524
-0.19215335 0.18176667 0.77900004 524
-0.19445936 0.1850708 0.77833337 524
-0.19412857 0.1822743 0.778 524
-0.19683999 0.185 0.77700001 524
-0.19683999 0.18204001 0.77700001 524
-0.19803524 0.18331145 0.77300006 524
-0.19873334 0.18333334 0.77000004 524
-0.19864237 0.18098572 0.77250004 524
-0.19091429 0.18051429 0.78000003 524
-0.19091429 0.17308573 0.78000003 524
-0.19140953 0.16912383 0.78000003 524
-0.19165874 0.17929368 0.77900004 524
-0.1912881 0.17646047 0.77850002 524
-0.19437906 0.17954096 0.77900004 524
-0.19387999 0.17612001 0.77700001 524
-0.1919889 0.17271461 0.77833337 524
-0.19215335 0.1698962 0.77900004 524
-0.19412921 0.17264128 0.77800006 524
-0.1940043 0.1688281 0.77749997 524
-0.19683999 0.17907999 0.77700001 524
-0.1961 0.17686 0.77700001 524
-0.19657938 0.17542064 0.77500004 524
-0.19854762 0.17861906 0.77500004 524
-0.19854762 0.17640476 0.77500004 524
-0.19924952 0.17792761 0.77200001 524
-0.19924952 0.17572191 0.77200001 524
-0.19800001 0.17380001 0.77000004 524
-0.1961 0.17242 0.77700001 524
-0.19648096 0.17197619 0.77500004 524
-0.19633335 0.16828571 0.77500004 524
-0.19854762 0.17271429 0.77500004 524
-0.19884475 0.17138381 0.77233338 524
-0.19873334 0.16940001 0.77000004 524
-0.19803524 0.16785143 0.77300006 524
-0.20067143 0.18309523 0.76900005 524
-0.20093335 0.1804 0.77000004 524
-0.20260572 0.18285714 0.76800001 524
-0.20309334 0.18017524 0.76799995 524
-0.20072 0.17866287 0.77200001 524
-0.20100319 0.1770692 0.76933336 524
-0.20067143 0.17430668 0.76900005 524
-0.20309334 0.17724951 0.76799995 524
-0.20260572 0.17481142 0.76800001 524
-0.20072 0.17131047 0.77200001 524
-0.20149207 0.17071746 0.76933336 524
-0.20072 0.16836953 0.77200001 524
-0.20117779 0.16695555 0.77000004 524
-0.20380287 0.18261904 0.76700002 524
-0.20380287 0.17896667 0.76700002 524
-0.20585953 0.18249953 0.7665 524
-0.20585953 0.17958048 0.7665 524
-0.2071 0.17875999 0.76300001 524
-0.20380287 0.17604476 0.76700002 524
-0.20313872 0.17345937 0.76633334 524
-0.20572476 0.17654477 0.76600003 524
-0.20572478 0.17435619 0.76600003 524
-0.20419332 0.17222001 0.76300001 524
-0.1899143 0.16757144 0.78200006 524
-0.19091429 0.16714285 0.78000003 524
-0.19215335 0.16618668 0.77900004 524
-0.19165999 0.1628 0.77700001 524
-0.19387999 0.16576 0.77700001 524
-0.19387999 0.1628 0.77700001 524
-0.1961 0.16501999 0.77700001 524
-0.19559525 0.16607144 0.77500004 524
-0.1961 0.1628 0.77700001 524
-0.19803524 0.16490668 0.77300006 524
-0.19873334 0.16426668 0.77000004 524
-0.16928573 0.20285715 0.75000006 525
-0.16928573 0.20071431 0.75000006 525
-0.16740952 0.20231619 0.74800003 525
-0.16800906 0.19933382 0.74750006 525
-0.16673811 0.19795716 0.74500006 525
-0.16815716 0.19653811 0.74500006 525
-0.16117238 0.20058572 0.73900002 525
-0.16465335 0.19998667 0.74200004 525
-0.16269 0.20001763 0.73950005 525
-0.16351841 0.19730127 0.73900002 525
-0.16214001 0.19583145 0.73700005 525
-0.16398762 0.19425143 0.73900002 525
-0.16676705 0.19420782 0.74260008 525
-0.16688618 0.19092858 0.74250007 525
-0.16249096 0.19267288 0.73700005 525
-0.16273192 0.18938571 0.73650002 525
-0.16748001 0.18797334 0.74200004 525
-0.16561906 0.18746668 0.74000001 525
-0.16748001 0.18514669 0.74200004 525
-0.16561906 0.18535237 0.74000001 525
-0.16267644 0.18651691 0.73625004 525
-0.16262096 0.18364954 0.73600006 525
-0.16494763 0.18319716 0.73700005 525
-0.16702858 0.18182857 0.74000001 525
-0.16680285 0.17876762 0.73900002 525
-0.16472383 0.18084574 0.73600006 525
-0.1642762 0.17755809 0.73400003 525
-0.16635144 0.17547621 0.73700005 525
-0.1642762 0.17476192 0.73400003 525
-0.17154334 0.20299286 0.75050002 525
-0.17166668 0.20023811 0.75000006 525
-0.17380287 0.20312858 0.75100005 525
-0.17428574 0.20000002 0.75000006 525
-0.17025904 0.19875428 0.74800003 525
-0.17642859 0.19357145 0.75000006 525
-0.17081936 0.19573049 0.74733335 525
-0.1714543 0.19279715 0.74700004 525
-0.17004924 0.19133492 0.74500006 525
-0.17382096 0.19590478 0.74800009 525
-0.17401543 0.19194344 0.74700004 525
-0.17099525 0.18873334 0.74500006 525
-0.1743 0.18923999 0.74700004 525
-0.17383336 0.18660478 0.74500006 525
-0.16912097 0.18822667 0.74300003 525
-0.16982858 0.18539619 0.74300003 525
-0.17265905 0.18468857 0.74300003 525
-0.17478192 0.18468857 0.74300003 525
-0.17525239 0.18092859 0.74500006 525
-0.17809048 0.17667145 0.74500006 525
-0.16983557 0.18255556 0.74200004 525
-0.16843809 0.18112381 0.74000001 525
-0.16914284 0.17900951 0.74000001 525
-0.17234604 0.18224828 0.74266672 525
-0.17254335 0.17961431 0.74250007 525
-0.16908595 0.17613071 0.73975003 525
-0.17274003 0.17651016 0.74233341 525
-0.17125715 0.17689525 0.74000001 525
-0.17478192 0.18185809 0.74300003 525
-0.17548953 0.17690477 0.74300003 525
-0.18332286 0.21549745 0.78566664 526
-0.18414858 0.21259429 0.78600001 526
-0.18489714 0.2096 0.78600001 526
-0.18666667 0.21504 0.78400004 526
-0.18940444 0.21777779 0.7840001 526
-0.1899143 0.21821526 0.78200006 526
-0.18965334 0.21504 0.78400004 526
-0.18690382 0.21232381 0.78500003 526
-0.18690382 0.20933333 0.78500003 526
-0.18965334 0.21205334 0.78400004 526
-0.18965334 0.20981334 0.78400004 526
-0.18916954 0.20778859 0.78200006 526
-0.18544604 0.20646827 0.78833342 526
-0.18686858 0.20638096 0.78800005 526
-0.18700573 0.20554288 0.78479999 526
-0.18615714 0.2018581 0.78500003 526
-0.18693525 0.20108573 0.78200006 526
-0.18916954 0.20480955 0.78200006 526
-0.18916954 0.20108573 0.78200006 526
-0.18592 0.19861335 0.78400004 526
-0.18693525 0.19810668 0.78200006 526
-0.18592 0.19637334 0.78400004 526
-0.18643874 0.19487937 0.78200006 526
-0.18916954 0.19810669 0.78200006 526
-0.18916954 0.19512764 0.78200006 526
-0.19202524 0.21733096 0.78150004 526
-0.19214858 0.21449144 0.78200006 526
-0.19388571 0.21394287 0.78000003 526
-0.19214858 0.21151239 0.78200006 526
-0.19190286 0.20826763 0.78100002 526
-0.19388571 0.21171428 0.78000003 526
-0.19438288 0.20927811 0.78200006 526
-0.19429238 0.21009302 0.77766663 526
-0.19412667 0.20695333 0.77700001 526
-0.1961 0.21016002 0.77700001 526
-0.19165714 0.20428573 0.78000003 526
-0.19177952 0.20069952 0.78049999 526
-0.19388573 0.20428573 0.78000003 526
-0.19190191 0.19785336 0.78100002 526
